# This PCD file was generated using the MATLAB® pcwrite function
# from Computer Vision Toolbox®.
# .PCD v.7 - Point Cloud Data file format
VERSION .7
FIELDS x y z
SIZE 4 4 4
TYPE F F F
COUNT 1 1 1
WIDTH 1614
HEIGHT 1
VIEWPOINT 0 0 0 1 0 0 0
POINTS 1614
DATA ascii
0.043105 -0.974176 -0.020816
0.042847 -0.973758 -0.020966
-0.066622 -0.973177 -0.020610
-0.066483 -0.973011 -0.020854
0.042492 -0.973056 -0.020834
-0.066173 -0.972377 -0.020680
0.041974 -0.972037 -0.020651
0.042159 -0.972434 -0.020808
-0.065839 -0.971790 -0.020752
0.041818 -0.971779 -0.020726
-0.065440 -0.971050 -0.020732
0.041150 -0.970575 -0.020795
0.040875 -0.970127 -0.020949
-0.064785 -0.969816 -0.020649
0.040730 -0.969771 -0.020706
-0.064409 -0.969208 -0.020877
-0.050275 -0.969214 -0.020785
-0.049906 -0.969448 -0.020816
-0.049161 -0.969268 -0.020618
-0.048812 -0.969219 -0.020790
0.023495 -0.969003 -0.020823
0.023977 -0.969069 -0.020544
0.024122 -0.969106 -0.020783
0.024609 -0.969192 -0.020860
0.025196 -0.969279 -0.020662
0.025701 -0.969370 -0.020584
-0.064140 -0.968686 -0.020803
-0.051202 -0.968596 -0.020661
-0.050744 -0.968841 -0.020601
-0.047210 -0.968948 -0.020744
-0.046753 -0.968874 -0.020790
-0.046467 -0.968837 -0.020988
-0.045309 -0.968636 -0.020854
0.020642 -0.968529 -0.020891
0.021221 -0.968625 -0.020880
0.021699 -0.968707 -0.020908
0.022036 -0.968766 -0.020948
0.022821 -0.968886 -0.020754
0.026685 -0.968872 -0.020617
0.027320 -0.968528 -0.020691
0.040049 -0.968552 -0.020797
-0.064078 -0.968487 -0.020571
-0.052043 -0.968158 -0.020795
-0.051655 -0.968278 -0.020557
-0.044528 -0.968487 -0.020517
-0.043146 -0.968271 -0.020812
-0.042581 -0.968170 -0.020700
0.017940 -0.968049 -0.020997
0.018076 -0.968246 -0.020844
0.018708 -0.968195 -0.020703
0.019691 -0.968359 -0.020693
0.020393 -0.968471 -0.020581
0.027545 -0.968431 -0.020768
0.039867 -0.968190 -0.020719
-0.053079 -0.967592 -0.020904
-0.052781 -0.967713 -0.020784
-0.041700 -0.967753 -0.020688
0.017435 -0.967548 -0.020678
0.017732 -0.967822 -0.020788
0.028263 -0.967904 -0.020557
0.028894 -0.967605 -0.020722
0.039659 -0.967874 -0.020903
-0.063354 -0.967193 -0.020670
-0.053720 -0.967132 -0.020738
-0.053421 -0.967288 -0.020691
-0.041146 -0.967297 -0.020689
0.016968 -0.967176 -0.020722
0.017043 -0.967248 -0.020762
0.029292 -0.967300 -0.020576
0.029701 -0.967165 -0.020808
0.039341 -0.967259 -0.020821
-0.062988 -0.966553 -0.020760
-0.054273 -0.966801 -0.020734
-0.040726 -0.966921 -0.020572
-0.040344 -0.966688 -0.020881
0.016296 -0.966681 -0.020942
0.016578 -0.966876 -0.020801
0.030343 -0.966743 -0.020725
0.030581 -0.966652 -0.020832
0.038903 -0.966510 -0.020970
0.039183 -0.966988 -0.020874
-0.062799 -0.966265 -0.020922
-0.055330 -0.966111 -0.020604
-0.054804 -0.966388 -0.020528
-0.040180 -0.966488 -0.020634
-0.039845 -0.966200 -0.020586
0.030890 -0.966484 -0.020866
0.031259 -0.966221 -0.020774
0.038786 -0.966231 -0.020800
-0.056294 -0.965639 -0.020824
0.014982 -0.965599 -0.020944
0.015551 -0.965958 -0.020530
0.031724 -0.965907 -0.020695
0.032165 -0.965714 -0.020844
0.038627 -0.965933 -0.020784
-0.057072 -0.965164 -0.020799
-0.056703 -0.965344 -0.020712
-0.038637 -0.965192 -0.020538
-0.038474 -0.965091 -0.020661
0.032432 -0.965430 -0.020576
0.032773 -0.965400 -0.020947
0.033112 -0.965075 -0.020684
-0.061867 -0.964549 -0.020916
-0.057747 -0.964715 -0.020699
-0.038113 -0.964796 -0.020672
-0.037878 -0.964627 -0.020763
0.013832 -0.964651 -0.020938
0.014196 -0.964894 -0.020722
0.033831 -0.964700 -0.020798
0.034160 -0.964554 -0.020905
0.038052 -0.964843 -0.020691
-0.058759 -0.964182 -0.020847
-0.058398 -0.964277 -0.020592
-0.037594 -0.964345 -0.020585
-0.037349 -0.964196 -0.020779
0.013401 -0.964226 -0.020672
0.034699 -0.964161 -0.020750
0.037677 -0.964217 -0.020866
-0.061413 -0.963666 -0.020781
-0.059755 -0.963515 -0.020690
-0.059183 -0.963831 -0.020638
-0.058936 -0.963978 -0.020638
-0.036986 -0.963934 -0.020917
-0.036473 -0.963518 -0.020942
0.012714 -0.963653 -0.020644
0.013061 -0.963962 -0.020732
0.035457 -0.963700 -0.020731
0.035904 -0.963528 -0.020933
0.037359 -0.963589 -0.020742
0.037553 -0.963940 -0.020731
-0.061111 -0.963112 -0.020785
-0.060312 -0.963260 -0.020852
-0.059924 -0.963425 -0.020714
-0.036556 -0.963484 -0.020558
0.012234 -0.963343 -0.020967
0.035872 -0.963381 -0.020578
0.036478 -0.963108 -0.020766
-0.060764 -0.962864 -0.020545
-0.035758 -0.962847 -0.020632
-0.035485 -0.962715 -0.020982
0.036909 -0.962900 -0.020840
-0.034903 -0.962152 -0.020668
0.010980 -0.962309 -0.020961
0.011246 -0.962481 -0.020783
-0.034235 -0.961652 -0.020854
-0.012748 -0.961606 -0.020823
-0.012178 -0.961689 -0.020611
-0.011823 -0.961705 -0.020767
-0.011190 -0.961607 -0.020863
0.010106 -0.961502 -0.020629
0.010660 -0.961956 -0.020622
-0.033866 -0.961300 -0.020675
-0.015125 -0.961052 -0.020779
-0.014764 -0.961216 -0.020960
-0.014094 -0.961347 -0.020917
-0.013647 -0.961388 -0.020788
-0.012770 -0.961488 -0.020579
-0.010747 -0.961393 -0.020616
-0.010310 -0.961276 -0.020577
-0.009827 -0.961262 -0.020781
-0.009132 -0.961064 -0.020690
0.009609 -0.961149 -0.020842
-0.033400 -0.960955 -0.020816
-0.017112 -0.960606 -0.020782
-0.016583 -0.960717 -0.020765
-0.015214 -0.960964 -0.020634
-0.008759 -0.960900 -0.020517
-0.008188 -0.960836 -0.020656
-0.007710 -0.960696 -0.020587
-0.007126 -0.960641 -0.020752
-0.006837 -0.960612 -0.020829
0.008859 -0.960502 -0.020729
0.009197 -0.960752 -0.020622
-0.032711 -0.960393 -0.020837
-0.018704 -0.960239 -0.020762
-0.006816 -0.960495 -0.020586
-0.006373 -0.960420 -0.020641
-0.005721 -0.960298 -0.020693
-0.005220 -0.960240 -0.020812
-0.004727 -0.960125 -0.020803
-0.004319 -0.960050 -0.020838
0.008361 -0.960070 -0.020646
0.008747 -0.960362 -0.020548
-0.031805 -0.959662 -0.020895
-0.021820 -0.959616 -0.020932
-0.021299 -0.959563 -0.020564
-0.020255 -0.959864 -0.020707
-0.019829 -0.959968 -0.020724
-0.003946 -0.959836 -0.020557
-0.003317 -0.959771 -0.020723
-0.002819 -0.959741 -0.020900
-0.002285 -0.959563 -0.020774
0.007907 -0.959749 -0.020846
0.008006 -0.959767 -0.020607
-0.031507 -0.959349 -0.020639
-0.031414 -0.959254 -0.020569
-0.025275 -0.959034 -0.020986
-0.023734 -0.959229 -0.020627
-0.022979 -0.959275 -0.020757
-0.022301 -0.959386 -0.020668
-0.002059 -0.959447 -0.020633
-0.001705 -0.959425 -0.020759
-0.001042 -0.959319 -0.020852
-0.000587 -0.959268 -0.020774
0.000159 -0.959149 -0.020914
-0.030728 -0.958732 -0.020731
-0.027827 -0.958546 -0.020728
-0.026702 -0.958802 -0.020921
-0.026295 -0.958679 -0.020574
-0.025623 -0.958853 -0.020730
-0.023879 -0.958985 -0.020516
-0.000040 -0.958987 -0.020547
0.000369 -0.958999 -0.020681
0.000578 -0.958994 -0.020727
0.001243 -0.958852 -0.020630
0.001704 -0.958833 -0.020719
0.002357 -0.958808 -0.020845
0.002747 -0.958729 -0.020796
0.003211 -0.958605 -0.020681
0.003856 -0.958591 -0.020828
0.006644 -0.958706 -0.020834
-0.030068 -0.958316 -0.020680
-0.029628 -0.958337 -0.020807
-0.029098 -0.958454 -0.020891
0.004879 -0.958474 -0.020877
0.005034 -0.958447 -0.020866
0.005722 -0.958347 -0.020858
0.006115 -0.958257 -0.020783
-0.083212 -0.995091 -0.020055
-0.082732 -0.995091 -0.020330
-0.082332 -0.995091 -0.020346
-0.081724 -0.995091 -0.020203
-0.081063 -0.995091 -0.020193
-0.080688 -0.995091 -0.020258
-0.080417 -0.995091 -0.020357
-0.079713 -0.995091 -0.020224
-0.079031 -0.995091 -0.020188
-0.078680 -0.995091 -0.020282
-0.077876 -0.995091 -0.020049
-0.077257 -0.995091 -0.020269
-0.076183 -0.995091 -0.020176
0.052215 -0.995091 -0.020397
0.053311 -0.995091 -0.020243
0.053597 -0.995091 -0.020170
0.054379 -0.995091 -0.020103
0.054800 -0.995091 -0.020232
0.055733 -0.995091 -0.020118
0.056186 -0.995091 -0.020243
0.056704 -0.995091 -0.020254
0.057189 -0.995091 -0.020024
0.057568 -0.995091 -0.020339
0.058222 -0.995091 -0.020435
0.058626 -0.995091 -0.020232
0.059294 -0.995091 -0.020296
-0.084765 -0.992594 -0.020409
0.060695 -0.992753 -0.020192
-0.089113 -0.992056 -0.020074
-0.084795 -0.992216 -0.020156
0.060800 -0.992296 -0.020414
-0.089040 -0.991823 -0.020273
-0.085073 -0.991635 -0.020232
0.060853 -0.991986 -0.020143
0.064881 -0.991570 -0.020353
0.065052 -0.991890 -0.020274
-0.088586 -0.991240 -0.020188
-0.088436 -0.991073 -0.020391
-0.085636 -0.991037 -0.020191
-0.085203 -0.991444 -0.020195
0.061463 -0.991194 -0.020422
0.064452 -0.991128 -0.020193
0.064672 -0.991321 -0.020310
-0.087682 -0.990697 -0.020299
-0.086817 -0.990604 -0.020091
-0.086259 -0.990730 -0.020359
0.062981 -0.990594 -0.020040
0.063069 -0.990602 -0.020023
0.063749 -0.990712 -0.020452
0.064123 -0.990888 -0.020275
-0.072713 -0.985096 -0.020020
-0.072596 -0.984725 -0.020022
0.048557 -0.984691 -0.020075
-0.072406 -0.984402 -0.020489
0.048368 -0.984317 -0.020223
-0.072178 -0.983862 -0.020137
0.048049 -0.983663 -0.020333
-0.071412 -0.982266 -0.020268
0.047329 -0.982157 -0.020423
-0.071186 -0.981796 -0.020308
-0.070975 -0.981320 -0.020126
0.046976 -0.981399 -0.020350
0.046692 -0.980789 -0.020289
-0.070537 -0.980432 -0.020352
-0.069948 -0.979181 -0.020308
0.046003 -0.979348 -0.020369
0.045757 -0.978864 -0.020306
-0.069373 -0.978063 -0.020147
0.045163 -0.977752 -0.020255
0.044755 -0.977018 -0.020295
-0.068580 -0.976668 -0.020316
-0.068331 -0.976122 -0.020076
-0.067938 -0.975554 -0.020494
0.043976 -0.975582 -0.020283
-0.067561 -0.974750 -0.020191
-0.067490 -0.974702 -0.020419
0.043408 -0.974560 -0.020344
0.043624 -0.974972 -0.020385
-0.067314 -0.974353 -0.020350
0.042913 -0.973594 -0.020191
0.042623 -0.973116 -0.020341
-0.066598 -0.972982 -0.020197
-0.066451 -0.972791 -0.020416
0.042106 -0.972139 -0.020270
-0.066006 -0.971848 -0.020071
0.041569 -0.971204 -0.020408
-0.065293 -0.970608 -0.020263
0.041360 -0.970760 -0.020245
-0.065020 -0.970079 -0.020193
0.040780 -0.969622 -0.020053
-0.064663 -0.969442 -0.020244
-0.049975 -0.969199 -0.020389
-0.049313 -0.969280 -0.020371
-0.048898 -0.969204 -0.020253
-0.047851 -0.969029 -0.020262
0.024329 -0.969112 -0.020254
0.025356 -0.969277 -0.020123
-0.050711 -0.968695 -0.020248
-0.050240 -0.968949 -0.020191
-0.047470 -0.968966 -0.020266
-0.046753 -0.968843 -0.020217
-0.046233 -0.968767 -0.020423
-0.045685 -0.968661 -0.020162
-0.044678 -0.968505 -0.020383
0.021143 -0.968571 -0.020121
0.022345 -0.968782 -0.020291
0.022572 -0.968822 -0.020327
0.023299 -0.968944 -0.020329
0.026439 -0.968775 -0.020097
0.026761 -0.968646 -0.020230
0.040229 -0.968695 -0.020286
-0.063954 -0.968152 -0.020279
-0.050968 -0.968471 -0.020096
-0.044145 -0.968406 -0.020213
-0.043772 -0.968343 -0.020201
-0.043459 -0.968283 -0.020061
-0.042807 -0.968178 -0.020135
0.018259 -0.968199 -0.020278
0.018855 -0.968198 -0.020307
0.020396 -0.968453 -0.020243
0.020510 -0.968463 -0.020067
0.027163 -0.968411 -0.020239
-0.063680 -0.967718 -0.020470
-0.052579 -0.967545 -0.020169
-0.052421 -0.967718 -0.020336
-0.042139 -0.967967 -0.020130
-0.041782 -0.967716 -0.020290
0.017577 -0.967576 -0.020342
0.027773 -0.967963 -0.020061
0.028431 -0.967751 -0.020443
0.028850 -0.967503 -0.020447
0.039696 -0.967625 -0.020037
-0.053293 -0.967198 -0.020336
-0.052637 -0.967467 -0.020075
-0.041231 -0.967257 -0.020271
-0.040984 -0.967109 -0.020482
0.017049 -0.967174 -0.020462
0.028864 -0.967408 -0.020263
0.029082 -0.967185 -0.020065
0.029525 -0.967044 -0.020326
0.039420 -0.967117 -0.020039
0.016339 -0.966520 -0.020203
0.030146 -0.966640 -0.020253
0.039178 -0.966761 -0.020278
-0.063049 -0.966408 -0.020060
-0.062928 -0.966247 -0.020227
-0.055091 -0.966062 -0.020196
-0.054804 -0.966239 -0.020208
-0.040098 -0.966262 -0.020039
-0.039817 -0.966060 -0.020149
0.015831 -0.966095 -0.020179
0.016096 -0.966382 -0.020438
0.030432 -0.966370 -0.020040
0.030675 -0.966357 -0.020321
0.031089 -0.966087 -0.020272
-0.062532 -0.965569 -0.020361
-0.056103 -0.965561 -0.020413
-0.055867 -0.965688 -0.020383
-0.055246 -0.965935 -0.020123
-0.039534 -0.965898 -0.020415
-0.039439 -0.965745 -0.020134
0.015583 -0.965944 -0.020379
0.031435 -0.965800 -0.020099
0.031751 -0.965700 -0.020287
0.038576 -0.965647 -0.020255
-0.062213 -0.965030 -0.020492
-0.056774 -0.965087 -0.020256
-0.056217 -0.965450 -0.020322
-0.038793 -0.965222 -0.020166
0.014545 -0.965017 -0.020101
0.032328 -0.965302 -0.020172
-0.057546 -0.964559 -0.020109
-0.057397 -0.964776 -0.020385
-0.038424 -0.964994 -0.020451
0.013984 -0.964561 -0.020126
0.014306 -0.964918 -0.020475
0.032869 -0.964946 -0.020100
0.033354 -0.964702 -0.020194
0.037993 -0.964621 -0.020384
-0.058226 -0.964150 -0.020101
-0.037696 -0.964305 -0.020115
-0.037388 -0.964073 -0.020197
0.013576 -0.964274 -0.020311
0.033925 -0.964470 -0.020426
0.034522 -0.964133 -0.020466
0.037885 -0.964350 -0.020183
-0.061572 -0.963774 -0.020278
-0.061445 -0.963585 -0.020399
-0.059043 -0.963763 -0.020313
-0.058925 -0.963878 -0.020411
-0.037198 -0.963912 -0.020178
-0.036836 -0.963627 -0.020228
0.012888 -0.963630 -0.020015
0.013195 -0.963922 -0.020165
0.034730 -0.963876 -0.020182
0.035087 -0.963666 -0.020186
0.037463 -0.963675 -0.020460
0.037666 -0.963987 -0.020294
-0.059946 -0.963208 -0.020276
-0.059372 -0.963479 -0.020127
-0.036303 -0.963202 -0.020278
0.012160 -0.963140 -0.020429
0.035410 -0.963415 -0.020062
0.036282 -0.963001 -0.020286
-0.061114 -0.962929 -0.020269
-0.035631 -0.962617 -0.020160
0.011567 -0.962592 -0.020202
0.012036 -0.962936 -0.020046
0.036462 -0.962974 -0.020458
0.036717 -0.962761 -0.020328
0.037075 -0.962848 -0.020149
-0.035274 -0.962348 -0.020251
-0.034930 -0.962024 -0.020099
0.010785 -0.962018 -0.020466
-0.034229 -0.961541 -0.020453
0.010360 -0.961590 -0.020173
-0.034230 -0.961437 -0.020058
-0.033658 -0.961019 -0.020256
-0.014260 -0.961051 -0.020358
-0.013622 -0.961185 -0.020338
-0.013275 -0.961172 -0.020140
-0.012708 -0.961394 -0.020344
-0.011756 -0.961389 -0.020118
-0.011432 -0.961405 -0.020310
-0.010996 -0.961392 -0.020493
-0.010182 -0.961072 -0.020197
-0.009682 -0.961035 -0.020361
0.009887 -0.961165 -0.020039
-0.033215 -0.960640 -0.020202
-0.016255 -0.960591 -0.020333
-0.015674 -0.960623 -0.020119
-0.015442 -0.960641 -0.020047
-0.014978 -0.960739 -0.020034
-0.009366 -0.960886 -0.020194
-0.008843 -0.960802 -0.020265
-0.008386 -0.960615 -0.020084
-0.007651 -0.960563 -0.020327
0.009168 -0.960631 -0.020257
0.009562 -0.960934 -0.020176
-0.032950 -0.960459 -0.020345
-0.032436 -0.960055 -0.020416
-0.018806 -0.960059 -0.020424
-0.017970 -0.960246 -0.020422
-0.017226 -0.960319 -0.020218
-0.016764 -0.960438 -0.020250
-0.007077 -0.960375 -0.020199
-0.006525 -0.960173 -0.020032
-0.005857 -0.960129 -0.020261
-0.005238 -0.960047 -0.020385
0.008443 -0.960095 -0.020487
0.008667 -0.960245 -0.020356
-0.032273 -0.959838 -0.020105
-0.031990 -0.959707 -0.020486
-0.021047 -0.959541 -0.020393
-0.020354 -0.959724 -0.020453
-0.019854 -0.959697 -0.020150
-0.018987 -0.959860 -0.020082
-0.005375 -0.959985 -0.020185
-0.004843 -0.959958 -0.020385
-0.004304 -0.959696 -0.020081
-0.003797 -0.959695 -0.020325
-0.003420 -0.959609 -0.020323
-0.002858 -0.959562 -0.020494
0.007902 -0.959550 -0.020108
-0.031649 -0.959426 -0.020486
-0.022339 -0.959149 -0.020175
-0.021774 -0.959208 -0.020027
-0.021454 -0.959389 -0.020262
-0.003168 -0.959460 -0.020124
-0.002657 -0.959358 -0.020151
0.007272 -0.959064 -0.020233
-0.031082 -0.958831 -0.020002
-0.026278 -0.958571 -0.020360
-0.025784 -0.958544 -0.020173
-0.025102 -0.958640 -0.020177
-0.024209 -0.958822 -0.020288
-0.023465 -0.958861 -0.020098
-0.000748 -0.958909 -0.020109
-0.000276 -0.958866 -0.020204
0.000190 -0.958825 -0.020296
0.000616 -0.958773 -0.020309
0.001224 -0.958591 -0.020120
0.002208 -0.958633 -0.020465
0.002762 -0.958552 -0.020459
0.006867 -0.958774 -0.020396
-0.030182 -0.958178 -0.020336
-0.029647 -0.958102 -0.020356
-0.029346 -0.958084 -0.020241
-0.028748 -0.958131 -0.020172
-0.027636 -0.958406 -0.020406
-0.027155 -0.958397 -0.020258
-0.026468 -0.958469 -0.020213
0.001714 -0.958494 -0.020064
0.002191 -0.958465 -0.020135
0.002748 -0.958402 -0.020163
0.003090 -0.958321 -0.020099
0.004177 -0.958288 -0.020327
0.004735 -0.958175 -0.020257
0.005945 -0.958327 -0.020187
0.006376 -0.958364 -0.020375
-0.082760 -0.995091 -0.019648
-0.082144 -0.995091 -0.019975
-0.081865 -0.995091 -0.019767
-0.081276 -0.995091 -0.019640
-0.080843 -0.995091 -0.019565
-0.080305 -0.995091 -0.019743
-0.079993 -0.995091 -0.019927
-0.078752 -0.995091 -0.019688
-0.077624 -0.995091 -0.019939
-0.076730 -0.995091 -0.019622
0.052259 -0.995091 -0.019610
0.052626 -0.995091 -0.019682
0.053378 -0.995091 -0.019769
0.053841 -0.995091 -0.019773
0.054858 -0.995091 -0.019782
0.055225 -0.995091 -0.019911
0.055819 -0.995091 -0.019846
0.056317 -0.995091 -0.019877
0.057375 -0.995091 -0.019849
0.058723 -0.995091 -0.019736
0.059324 -0.995091 -0.019802
0.065168 -0.992735 -0.019748
-0.084709 -0.992238 -0.019738
0.060665 -0.992283 -0.019652
0.065032 -0.992117 -0.019640
-0.088847 -0.991661 -0.019766
0.060835 -0.991833 -0.019679
0.064886 -0.991773 -0.019743
-0.085195 -0.991343 -0.019659
0.061515 -0.991039 -0.019712
0.064408 -0.991137 -0.019894
-0.088006 -0.990850 -0.019989
-0.087757 -0.990760 -0.019713
-0.087188 -0.990614 -0.019966
-0.086986 -0.990597 -0.019809
-0.086183 -0.990712 -0.019657
-0.085682 -0.990960 -0.019837
0.062234 -0.990681 -0.019570
0.062680 -0.990609 -0.019852
0.063262 -0.990633 -0.019735
0.063592 -0.990696 -0.019941
0.064052 -0.990908 -0.019727
0.048576 -0.984696 -0.019858
-0.072287 -0.984026 -0.019739
0.048403 -0.984285 -0.019578
0.048088 -0.983651 -0.019779
-0.071890 -0.983173 -0.019660
0.047923 -0.983304 -0.019775
-0.071632 -0.982628 -0.019653
-0.071518 -0.982415 -0.019820
-0.071218 -0.981766 -0.019726
0.047166 -0.981678 -0.019611
-0.071000 -0.981324 -0.019836
0.046924 -0.981194 -0.019773
-0.070732 -0.980726 -0.019653
-0.070464 -0.980206 -0.019912
0.046552 -0.980403 -0.019752
-0.070351 -0.979906 -0.019548
-0.070078 -0.979366 -0.019774
0.046079 -0.979386 -0.019633
-0.069497 -0.978144 -0.019747
0.045427 -0.978207 -0.019603
0.045565 -0.978390 -0.019705
0.045223 -0.977658 -0.019699
0.044935 -0.977225 -0.019959
-0.068764 -0.976843 -0.019872
-0.068365 -0.976052 -0.019716
0.044400 -0.976234 -0.019938
-0.067868 -0.975161 -0.019776
0.044015 -0.975368 -0.019506
0.043621 -0.974725 -0.019728
-0.067166 -0.973937 -0.019956
0.043145 -0.973849 -0.019723
0.042849 -0.973245 -0.019565
-0.066626 -0.972876 -0.019773
0.042613 -0.972896 -0.019792
0.042190 -0.972126 -0.019810
-0.066109 -0.971927 -0.019775
-0.065959 -0.971556 -0.019515
0.041976 -0.971791 -0.019972
0.042145 -0.971964 -0.019597
-0.065679 -0.971184 -0.019905
0.041635 -0.971099 -0.019792
-0.065428 -0.970610 -0.019597
0.041396 -0.970669 -0.019821
-0.065132 -0.970168 -0.019874
0.041058 -0.970077 -0.019899
-0.064941 -0.969702 -0.019562
0.040909 -0.969725 -0.019686
0.041017 -0.969868 -0.019535
-0.049674 -0.969051 -0.019687
-0.049183 -0.969268 -0.019727
-0.048739 -0.969142 -0.019595
-0.047887 -0.969015 -0.019893
0.024097 -0.969056 -0.019937
0.024668 -0.969139 -0.019703
0.025307 -0.969316 -0.019647
0.025929 -0.969002 -0.019933
0.040625 -0.969269 -0.019866
-0.064527 -0.968946 -0.019574
-0.064210 -0.968506 -0.019961
-0.050110 -0.968846 -0.019806
-0.047567 -0.968955 -0.019762
-0.047347 -0.968911 -0.019631
-0.046800 -0.968824 -0.019716
-0.046379 -0.968756 -0.019765
-0.045828 -0.968674 -0.019955
-0.044930 -0.968522 -0.019931
0.021129 -0.968546 -0.019697
0.022390 -0.968755 -0.019657
0.022874 -0.968852 -0.019940
0.023199 -0.968907 -0.019950
0.023610 -0.968958 -0.019630
0.026359 -0.968709 -0.019854
0.026709 -0.968563 -0.019989
-0.051205 -0.968098 -0.019601
-0.050860 -0.968320 -0.019636
-0.044653 -0.968469 -0.019813
-0.043685 -0.968309 -0.019846
-0.043310 -0.968239 -0.019703
-0.042759 -0.968148 -0.019737
0.019156 -0.968221 -0.019800
0.019577 -0.968290 -0.019759
0.026869 -0.968308 -0.019647
0.027313 -0.968177 -0.019932
0.040092 -0.968219 -0.019675
-0.063890 -0.967773 -0.019565
-0.052181 -0.967657 -0.019901
-0.051991 -0.967781 -0.019924
-0.042206 -0.967974 -0.019948
-0.041800 -0.967552 -0.019617
0.017704 -0.967543 -0.019823
0.018195 -0.967934 -0.019772
0.027587 -0.967958 -0.019813
0.028195 -0.967600 -0.019820
-0.063544 -0.967215 -0.019783
-0.053290 -0.967011 -0.019932
-0.052275 -0.967476 -0.019634
-0.041266 -0.967190 -0.019912
0.017300 -0.967194 -0.019761
0.017754 -0.967499 -0.019502
0.028477 -0.967404 -0.019761
0.028751 -0.967185 -0.019642
-0.063266 -0.966667 -0.019680
-0.054038 -0.966574 -0.019951
-0.053779 -0.966686 -0.019859
-0.053414 -0.966805 -0.019650
-0.040821 -0.966762 -0.019676
0.029246 -0.966853 -0.019563
0.029682 -0.966742 -0.019881
0.039251 -0.966687 -0.019713
-0.054623 -0.966148 -0.019785
-0.054492 -0.966199 -0.019725
-0.040487 -0.966482 -0.019662
0.016235 -0.966283 -0.019632
0.030198 -0.966388 -0.019781
0.030673 -0.966124 -0.019822
0.039088 -0.966341 -0.019586
-0.062753 -0.965755 -0.019766
-0.055768 -0.965519 -0.019899
-0.055276 -0.965761 -0.019788
-0.054906 -0.965890 -0.019593
-0.039447 -0.965688 -0.019894
0.015411 -0.965686 -0.019940
0.031283 -0.965703 -0.019698
0.038712 -0.965775 -0.019929
-0.056558 -0.965038 -0.019875
-0.055815 -0.965387 -0.019675
-0.039035 -0.965317 -0.019776
0.014901 -0.965268 -0.019946
0.015026 -0.965370 -0.019941
0.031893 -0.965464 -0.019965
-0.062097 -0.964610 -0.019928
-0.056724 -0.964848 -0.019681
-0.038615 -0.964972 -0.019774
-0.038109 -0.964587 -0.019896
0.014471 -0.964799 -0.019513
0.032741 -0.964862 -0.019756
0.038158 -0.964697 -0.019762
-0.058213 -0.964007 -0.019779
-0.037890 -0.964418 -0.019939
0.013988 -0.964486 -0.019829
0.033596 -0.964306 -0.019656
0.037886 -0.964219 -0.019824
-0.061641 -0.963716 -0.019775
-0.058870 -0.963639 -0.019830
-0.058151 -0.963933 -0.019541
-0.037232 -0.963791 -0.019615
-0.036899 -0.963609 -0.019965
0.012928 -0.963580 -0.019707
0.013183 -0.963803 -0.019755
0.034641 -0.963779 -0.019862
0.035147 -0.963533 -0.019980
0.037524 -0.963582 -0.019900
-0.061567 -0.963482 -0.019513
-0.061360 -0.963259 -0.019939
-0.059874 -0.963039 -0.019823
-0.059307 -0.963309 -0.019680
-0.036628 -0.963313 -0.019690
-0.036210 -0.963038 -0.019950
0.035259 -0.963305 -0.019634
0.037535 -0.963476 -0.019556
-0.061169 -0.962795 -0.019632
-0.060758 -0.962712 -0.019935
-0.060152 -0.962851 -0.019778
-0.059982 -0.962926 -0.019720
-0.035907 -0.962691 -0.019582
0.011820 -0.962715 -0.019884
0.012146 -0.962958 -0.019787
0.036244 -0.962856 -0.019929
0.037065 -0.962724 -0.019863
-0.060878 -0.962438 -0.019769
0.011309 -0.962310 -0.019942
0.036817 -0.962449 -0.019790
-0.034897 -0.961869 -0.019619
0.010863 -0.961858 -0.019622
-0.033810 -0.961060 -0.019940
-0.012705 -0.961102 -0.019711
-0.012094 -0.961254 -0.019658
-0.011674 -0.961133 -0.019604
-0.011254 -0.961112 -0.019763
-0.010368 -0.961004 -0.019962
0.009880 -0.961069 -0.019696
-0.033379 -0.960614 -0.019600
-0.014745 -0.960648 -0.019722
-0.014117 -0.960863 -0.019882
-0.013839 -0.960831 -0.019678
-0.013260 -0.960880 -0.019502
-0.010340 -0.960870 -0.019685
-0.009685 -0.960762 -0.019769
-0.009126 -0.960655 -0.019810
0.009511 -0.960769 -0.019713
-0.032971 -0.960283 -0.019615
-0.017714 -0.960096 -0.019973
-0.017396 -0.960116 -0.019861
-0.016853 -0.960242 -0.019869
-0.016086 -0.960394 -0.019826
-0.015738 -0.960403 -0.019675
-0.008132 -0.960348 -0.019630
-0.007150 -0.960183 -0.019751
-0.006864 -0.960078 -0.019663
0.008777 -0.960192 -0.019814
0.009113 -0.960444 -0.019722
-0.032546 -0.959933 -0.019615
-0.018280 -0.959844 -0.019704
-0.017943 -0.959841 -0.019532
-0.005657 -0.959856 -0.019769
-0.005402 -0.959864 -0.019909
-0.004755 -0.959577 -0.019604
-0.004476 -0.959696 -0.019997
0.008502 -0.959988 -0.019901
-0.031878 -0.959442 -0.019838
-0.031487 -0.959061 -0.019614
-0.022113 -0.959075 -0.019905
-0.021181 -0.959218 -0.019761
-0.020553 -0.959371 -0.019786
-0.020100 -0.959459 -0.019755
-0.019693 -0.959443 -0.019523
-0.004000 -0.959399 -0.019586
-0.003179 -0.959351 -0.019883
-0.002320 -0.959127 -0.019817
-0.031253 -0.958901 -0.019738
-0.022799 -0.958936 -0.019938
-0.022321 -0.958899 -0.019625
-0.001668 -0.958918 -0.019680
-0.000580 -0.958718 -0.019777
0.000123 -0.958693 -0.019810
0.000883 -0.958508 -0.019867
0.007166 -0.958822 -0.019652
-0.030335 -0.958113 -0.019616
-0.028547 -0.958038 -0.019937
-0.028402 -0.958014 -0.019850
-0.027256 -0.958132 -0.019771
-0.026805 -0.958220 -0.019822
-0.026280 -0.958236 -0.019711
-0.025781 -0.958372 -0.019839
-0.024017 -0.958494 -0.019575
0.000808 -0.958401 -0.019639
0.001224 -0.958390 -0.019729
0.002225 -0.958266 -0.019759
0.003224 -0.958139 -0.019781
0.003738 -0.958089 -0.019822
0.006274 -0.958142 -0.019856
0.006595 -0.958385 -0.019775
-0.029793 -0.957869 -0.019765
-0.029191 -0.957876 -0.019795
-0.028689 -0.957878 -0.019665
-0.027873 -0.957940 -0.019566
0.004207 -0.957946 -0.019672
0.005827 -0.957893 -0.019855
-0.082942 -0.995091 -0.019341
-0.082237 -0.995091 -0.019161
-0.081865 -0.995091 -0.019483
-0.081228 -0.995091 -0.019222
-0.079877 -0.995091 -0.019166
-0.078788 -0.995091 -0.019299
-0.077755 -0.995091 -0.019349
-0.076950 -0.995091 -0.019032
0.052324 -0.995091 -0.019444
0.052981 -0.995091 -0.019089
0.053301 -0.995091 -0.019286
0.053917 -0.995091 -0.019388
0.054025 -0.995091 -0.019215
0.054946 -0.995091 -0.019144
0.055226 -0.995091 -0.019050
0.055699 -0.995091 -0.019351
0.056854 -0.995091 -0.019021
0.057344 -0.995091 -0.019244
0.057703 -0.995091 -0.019165
0.058111 -0.995091 -0.019211
-0.089122 -0.992569 -0.019478
0.060492 -0.992738 -0.019131
0.065056 -0.992798 -0.019121
-0.089034 -0.992326 -0.019246
-0.084513 -0.992499 -0.019020
0.060666 -0.992065 -0.019324
0.064921 -0.992049 -0.019170
-0.088782 -0.991656 -0.019406
-0.084851 -0.991661 -0.019144
0.060862 -0.991653 -0.019264
0.064678 -0.991563 -0.019299
-0.088571 -0.991403 -0.019262
-0.088308 -0.991151 -0.019227
-0.085275 -0.991192 -0.019236
-0.084965 -0.991484 -0.019075
0.061270 -0.991155 -0.019144
0.064343 -0.991195 -0.019319
-0.087452 -0.990676 -0.019494
-0.086546 -0.990611 -0.019055
-0.086299 -0.990658 -0.019252
-0.085834 -0.990831 -0.019405
0.061611 -0.990896 -0.019006
0.062215 -0.990670 -0.019231
0.062658 -0.990601 -0.019237
0.063364 -0.990673 -0.019202
0.063812 -0.990830 -0.019306
-0.072685 -0.984845 -0.019383
0.048610 -0.984639 -0.019085
-0.072425 -0.984212 -0.019120
0.048348 -0.984130 -0.019347
-0.072058 -0.983494 -0.019454
0.047900 -0.983163 -0.019234
-0.071731 -0.982785 -0.019350
0.047696 -0.982760 -0.019387
-0.071484 -0.982279 -0.019444
-0.071062 -0.981349 -0.019210
0.046711 -0.980672 -0.019350
-0.070574 -0.980331 -0.019283
0.046574 -0.980357 -0.019188
0.046334 -0.979860 -0.019256
-0.069813 -0.978755 -0.019470
0.045819 -0.978751 -0.019126
-0.069626 -0.978331 -0.019285
0.045349 -0.977834 -0.019307
-0.069111 -0.977255 -0.019154
-0.068956 -0.977012 -0.019369
0.045095 -0.977269 -0.019133
-0.068942 -0.976901 -0.019139
0.044806 -0.976718 -0.019226
-0.068267 -0.975691 -0.019224
0.044340 -0.975883 -0.019284
0.043930 -0.975044 -0.019050
-0.067729 -0.974738 -0.019323
-0.067612 -0.974462 -0.019152
-0.067384 -0.974044 -0.019158
0.043551 -0.974392 -0.019173
-0.067236 -0.973849 -0.019367
0.043140 -0.973719 -0.019393
-0.066889 -0.973215 -0.019374
0.042933 -0.973196 -0.019010
0.042672 -0.972797 -0.019230
-0.066335 -0.972174 -0.019315
0.041985 -0.971628 -0.019483
0.042020 -0.971582 -0.019180
-0.065885 -0.971261 -0.019083
0.041836 -0.971269 -0.019254
-0.065548 -0.970643 -0.019086
0.041477 -0.970656 -0.019378
0.041181 -0.970069 -0.019263
-0.065055 -0.969712 -0.019018
-0.064995 -0.969738 -0.019391
-0.064810 -0.969315 -0.019163
-0.048799 -0.969132 -0.019227
-0.048147 -0.969022 -0.019215
0.024298 -0.969057 -0.019326
0.024701 -0.969119 -0.019234
0.040819 -0.969367 -0.019164
-0.064433 -0.968629 -0.019182
-0.049512 -0.968994 -0.019362
-0.047058 -0.968837 -0.019164
-0.046882 -0.968802 -0.019049
-0.046369 -0.968728 -0.019277
-0.045600 -0.968587 -0.019053
-0.045232 -0.968543 -0.019377
0.021748 -0.968633 -0.019387
0.022069 -0.968684 -0.019333
0.022878 -0.968813 -0.019221
0.023265 -0.968886 -0.019369
0.023570 -0.968926 -0.019162
0.025893 -0.968739 -0.019324
-0.064193 -0.968237 -0.019315
-0.050783 -0.968219 -0.019322
-0.050389 -0.968435 -0.019281
-0.044691 -0.968446 -0.019264
-0.044408 -0.968394 -0.019167
-0.043537 -0.968254 -0.019289
-0.043076 -0.968175 -0.019254
0.018385 -0.968018 -0.019499
0.018676 -0.968188 -0.019281
0.019314 -0.968214 -0.019168
0.019868 -0.968319 -0.019395
0.020319 -0.968376 -0.019055
0.020940 -0.968499 -0.019409
0.026394 -0.968379 -0.019194
0.026815 -0.968123 -0.019183
0.040168 -0.968217 -0.019289
-0.051720 -0.967651 -0.019302
-0.042171 -0.967756 -0.019234
-0.041926 -0.967548 -0.019209
0.027244 -0.967904 -0.019261
0.027661 -0.967743 -0.019448
0.039986 -0.967896 -0.019325
-0.052376 -0.967239 -0.019255
0.017584 -0.967309 -0.019311
0.028677 -0.967067 -0.019297
0.039635 -0.967203 -0.019198
-0.063380 -0.966754 -0.019346
-0.053711 -0.966511 -0.019400
-0.052959 -0.966866 -0.019201
-0.041224 -0.966935 -0.019079
-0.040824 -0.966663 -0.019296
0.016696 -0.966535 -0.019153
0.017063 -0.966854 -0.019214
0.029167 -0.966823 -0.019397
-0.054307 -0.966117 -0.019316
-0.053658 -0.966391 -0.019075
-0.040540 -0.966417 -0.019249
-0.040445 -0.966301 -0.019106
0.016247 -0.966170 -0.019167
0.016505 -0.966414 -0.019289
0.030239 -0.966170 -0.019367
0.039192 -0.966364 -0.019129
-0.055235 -0.965523 -0.019227
-0.054446 -0.965951 -0.019140
-0.039725 -0.965777 -0.019367
0.015939 -0.965987 -0.019433
0.030887 -0.965734 -0.019260
0.031130 -0.965609 -0.019303
0.038867 -0.965765 -0.019121
-0.062651 -0.965352 -0.019175
-0.055700 -0.965205 -0.019141
-0.039143 -0.965328 -0.019480
0.015096 -0.965247 -0.019262
0.031877 -0.965143 -0.019257
-0.062239 -0.964597 -0.019181
-0.057042 -0.964518 -0.019381
-0.056742 -0.964655 -0.019291
-0.056302 -0.964931 -0.019321
0.014587 -0.964841 -0.019309
0.032187 -0.964937 -0.019212
0.032771 -0.964570 -0.019171
0.038194 -0.964541 -0.019159
-0.061965 -0.964146 -0.019327
-0.057691 -0.964118 -0.019353
-0.057293 -0.964409 -0.019467
-0.038029 -0.964406 -0.019461
0.013700 -0.964058 -0.019113
0.014111 -0.964436 -0.019261
0.033267 -0.964303 -0.019233
0.033627 -0.964104 -0.019265
0.038104 -0.964384 -0.019181
-0.061827 -0.963801 -0.019076
-0.058291 -0.963672 -0.019163
-0.037299 -0.963751 -0.019255
0.013349 -0.963780 -0.019152
0.034242 -0.963736 -0.019261
0.037696 -0.963665 -0.019267
-0.061557 -0.963380 -0.019281
-0.059139 -0.963173 -0.019176
-0.058927 -0.963354 -0.019292
-0.036789 -0.963351 -0.019332
-0.036403 -0.963012 -0.019252
0.012537 -0.963150 -0.019297
0.034911 -0.963229 -0.019030
0.037350 -0.963007 -0.019206
-0.061098 -0.962531 -0.019266
-0.060236 -0.962664 -0.019485
-0.059734 -0.962836 -0.019214
-0.036350 -0.962987 -0.019324
-0.035777 -0.962543 -0.019424
0.011836 -0.962582 -0.019332
0.012190 -0.962866 -0.019303
0.035769 -0.962774 -0.019150
0.036274 -0.962554 -0.019322
-0.060897 -0.962209 -0.019291
-0.060444 -0.962401 -0.019187
-0.035214 -0.962018 -0.019196
0.011334 -0.962118 -0.019143
0.011611 -0.962415 -0.019399
0.036821 -0.962306 -0.019249
-0.034997 -0.961866 -0.019294
0.010695 -0.961649 -0.019353
-0.034313 -0.961317 -0.019350
-0.012045 -0.961168 -0.019279
0.010045 -0.961110 -0.019337
-0.033770 -0.960845 -0.019255
-0.013215 -0.960755 -0.019210
-0.012814 -0.960782 -0.019073
-0.012227 -0.960915 -0.019076
-0.011668 -0.960991 -0.019300
-0.011185 -0.960835 -0.019199
-0.010121 -0.960569 -0.019141
-0.009516 -0.960591 -0.019481
0.009696 -0.960827 -0.019356
-0.033054 -0.960272 -0.019318
-0.032910 -0.960128 -0.019219
-0.016639 -0.960040 -0.019329
-0.016249 -0.960102 -0.019273
-0.015746 -0.960180 -0.019197
-0.015044 -0.960318 -0.019155
-0.014781 -0.960416 -0.019240
-0.009959 -0.960475 -0.019016
-0.009089 -0.960318 -0.019099
-0.008857 -0.960433 -0.019462
-0.007605 -0.960098 -0.019346
-0.007132 -0.960060 -0.019493
0.008772 -0.960075 -0.019390
0.009160 -0.960345 -0.019204
-0.018792 -0.959587 -0.019397
-0.018123 -0.959711 -0.019339
-0.017759 -0.959732 -0.019209
-0.017005 -0.959913 -0.019232
-0.016873 -0.959901 -0.019143
-0.006815 -0.959878 -0.019254
-0.006297 -0.959736 -0.019199
-0.005709 -0.959666 -0.019334
-0.005247 -0.959546 -0.019298
0.008239 -0.959653 -0.019455
0.008523 -0.959864 -0.019365
-0.032030 -0.959358 -0.019048
-0.031714 -0.959188 -0.019388
-0.021325 -0.959023 -0.019409
-0.020859 -0.959058 -0.019259
-0.020244 -0.959121 -0.019096
-0.019138 -0.959448 -0.019264
-0.005515 -0.959481 -0.019027
-0.004323 -0.959315 -0.019249
-0.003749 -0.959073 -0.019004
-0.003308 -0.959079 -0.019231
0.007814 -0.959246 -0.019237
-0.031307 -0.958812 -0.019236
-0.023252 -0.958585 -0.019398
-0.022165 -0.958788 -0.019310
-0.021733 -0.958950 -0.019449
-0.021401 -0.958906 -0.019193
-0.003046 -0.958938 -0.019055
-0.002770 -0.958944 -0.019201
-0.002309 -0.958876 -0.019280
-0.001843 -0.958750 -0.019233
-0.001138 -0.958640 -0.019337
-0.000841 -0.958619 -0.019438
0.006984 -0.958566 -0.019251
0.007409 -0.958951 -0.019381
0.007506 -0.958941 -0.019046
-0.030685 -0.958285 -0.019178
-0.030353 -0.958005 -0.019153
-0.026203 -0.958067 -0.019363
-0.025092 -0.958130 -0.019185
-0.024829 -0.958258 -0.019363
-0.024333 -0.958386 -0.019271
-0.023820 -0.958401 -0.019278
-0.023476 -0.958454 -0.019224
-0.000214 -0.958358 -0.019178
0.000372 -0.958341 -0.019405
0.001243 -0.958171 -0.019310
0.001705 -0.958124 -0.019345
0.002324 -0.958047 -0.019362
0.006409 -0.958129 -0.019385
0.006775 -0.958355 -0.019105
-0.030153 -0.957899 -0.019374
-0.029275 -0.957672 -0.019423
-0.028959 -0.957601 -0.019200
-0.028468 -0.957735 -0.019328
-0.027738 -0.957681 -0.019027
-0.026797 -0.957875 -0.019150
-0.026168 -0.957948 -0.019123
-0.025650 -0.957975 -0.019035
0.002172 -0.957937 -0.019107
0.002703 -0.957909 -0.019196
0.003303 -0.957744 -0.019036
0.003857 -0.957844 -0.019381
0.004322 -0.957687 -0.019201
0.005003 -0.957587 -0.019191
0.005762 -0.957736 -0.019255
0.006065 -0.957871 -0.019485
-0.029741 -0.957498 -0.019143
-0.029223 -0.957493 -0.019061
0.005222 -0.957463 -0.019009
-0.083083 -0.995091 -0.018808
-0.082792 -0.995091 -0.018845
-0.082399 -0.995091 -0.018534
-0.081777 -0.995091 -0.018553
-0.081082 -0.995091 -0.018711
-0.080546 -0.995091 -0.018544
-0.080132 -0.995091 -0.018700
-0.079203 -0.995091 -0.018622
-0.078884 -0.995091 -0.018757
-0.078169 -0.995091 -0.018735
-0.077719 -0.995091 -0.018705
-0.077388 -0.995091 -0.018542
0.052797 -0.995091 -0.018780
0.053068 -0.995091 -0.018693
0.053961 -0.995091 -0.018900
0.054223 -0.995091 -0.018586
0.054803 -0.995091 -0.018947
0.055357 -0.995091 -0.018807
0.055666 -0.995091 -0.018902
0.056299 -0.995091 -0.018647
0.056671 -0.995091 -0.018595
0.057204 -0.995091 -0.018770
0.057826 -0.995091 -0.018692
0.058406 -0.995091 -0.018690
0.058680 -0.995091 -0.018741
0.059153 -0.995091 -0.018840
-0.088914 -0.992155 -0.018855
-0.084548 -0.992165 -0.018766
0.060452 -0.992436 -0.018740
0.060507 -0.992130 -0.018625
0.064930 -0.992433 -0.018637
-0.088698 -0.991722 -0.018798
-0.084652 -0.991889 -0.018724
0.060733 -0.991748 -0.018845
0.064652 -0.991671 -0.018748
-0.088133 -0.991051 -0.018948
0.061266 -0.991120 -0.018901
0.064120 -0.991083 -0.018767
-0.087992 -0.990955 -0.018938
-0.086753 -0.990600 -0.018711
-0.086183 -0.990674 -0.018986
-0.085502 -0.990951 -0.018809
0.061733 -0.990822 -0.018832
0.062717 -0.990594 -0.018626
0.063133 -0.990642 -0.018581
0.063905 -0.990920 -0.018852
-0.072602 -0.984494 -0.018571
-0.072481 -0.984267 -0.018739
0.048406 -0.984143 -0.018705
0.047871 -0.983036 -0.018843
0.047758 -0.982791 -0.018803
-0.071609 -0.982439 -0.018816
-0.071462 -0.982120 -0.018774
-0.071273 -0.981695 -0.018603
0.047310 -0.981867 -0.018930
0.046912 -0.981034 -0.018970
0.047050 -0.981299 -0.018814
-0.070812 -0.980750 -0.018778
-0.070533 -0.980179 -0.018891
0.046582 -0.980303 -0.018774
-0.070090 -0.979229 -0.018806
0.045996 -0.979048 -0.018670
0.046088 -0.979237 -0.018636
-0.069889 -0.978781 -0.018660
-0.069563 -0.978088 -0.018643
0.045405 -0.977803 -0.018685
-0.069189 -0.977304 -0.018665
0.045076 -0.977146 -0.018910
-0.068623 -0.976083 -0.018509
-0.068332 -0.975668 -0.018832
0.044426 -0.975791 -0.018605
0.044115 -0.975254 -0.018697
-0.067890 -0.974817 -0.018730
-0.067491 -0.974132 -0.018862
0.043447 -0.974091 -0.018872
-0.067246 -0.973658 -0.018797
0.043207 -0.973657 -0.018893
0.042852 -0.973040 -0.018991
0.042781 -0.972837 -0.018795
-0.066574 -0.972323 -0.018526
-0.066490 -0.972327 -0.018957
0.042471 -0.972165 -0.018513
-0.066228 -0.971753 -0.018704
0.042162 -0.971698 -0.018787
0.041759 -0.971010 -0.018930
0.042042 -0.971431 -0.018661
-0.065529 -0.970479 -0.018735
-0.065322 -0.970144 -0.018859
0.041326 -0.970172 -0.018819
-0.049036 -0.969050 -0.018874
-0.048544 -0.969072 -0.018912
-0.048332 -0.969023 -0.018651
0.024328 -0.969025 -0.018648
0.024708 -0.969215 -0.018725
0.040775 -0.969199 -0.018925
-0.064570 -0.968714 -0.018731
-0.064458 -0.968585 -0.018935
-0.049636 -0.968588 -0.018652
-0.049304 -0.968758 -0.018592
-0.048173 -0.968993 -0.018584
-0.047863 -0.968948 -0.018720
-0.047339 -0.968851 -0.018546
-0.046607 -0.968747 -0.018885
-0.046243 -0.968676 -0.018711
-0.045605 -0.968580 -0.018899
0.021283 -0.968526 -0.018834
0.021818 -0.968604 -0.018620
0.022480 -0.968720 -0.018727
0.022533 -0.968730 -0.018749
0.023076 -0.968824 -0.018800
0.025256 -0.968899 -0.018857
-0.064333 -0.968346 -0.018912
-0.050298 -0.968276 -0.018827
-0.049881 -0.968466 -0.018704
-0.044746 -0.968420 -0.018610
-0.044218 -0.968347 -0.018896
-0.043831 -0.968285 -0.018940
-0.043348 -0.968191 -0.018699
-0.063864 -0.967509 -0.018978
-0.050875 -0.967845 -0.018641
-0.042364 -0.967759 -0.018650
0.018477 -0.967906 -0.018791
0.018683 -0.967999 -0.018501
0.026705 -0.967898 -0.018562
0.027543 -0.967540 -0.018863
0.040169 -0.967978 -0.018634
-0.063694 -0.967160 -0.018880
-0.041923 -0.967381 -0.018592
-0.041385 -0.967040 -0.018975
0.017580 -0.967165 -0.018783
0.018017 -0.967476 -0.018597
0.027793 -0.967268 -0.018602
0.028334 -0.967068 -0.018863
0.039753 -0.967269 -0.018788
-0.063507 -0.966704 -0.018573
-0.063450 -0.966704 -0.018859
-0.053111 -0.966588 -0.018801
-0.052863 -0.966749 -0.018829
-0.041410 -0.966992 -0.018718
-0.040913 -0.966600 -0.018784
0.016892 -0.966536 -0.018546
0.028738 -0.966721 -0.018635
0.039598 -0.966986 -0.018790
-0.063217 -0.966182 -0.018604
-0.053355 -0.966349 -0.018601
-0.040726 -0.966468 -0.018864
-0.040333 -0.966144 -0.018863
0.016239 -0.966074 -0.018828
0.029521 -0.966199 -0.018516
-0.062929 -0.965740 -0.018845
-0.054926 -0.965521 -0.018830
-0.054289 -0.965817 -0.018652
-0.039745 -0.965642 -0.018796
0.015855 -0.965728 -0.018718
0.030064 -0.965903 -0.018574
0.030742 -0.965560 -0.018705
-0.062650 -0.965184 -0.018725
-0.055624 -0.965028 -0.018665
-0.054881 -0.965452 -0.018626
-0.039003 -0.965013 -0.018727
0.031134 -0.965332 -0.018715
0.031598 -0.965125 -0.018864
0.038701 -0.965290 -0.018661
-0.062359 -0.964685 -0.018823
-0.056549 -0.964595 -0.018918
-0.056270 -0.964699 -0.018785
-0.055988 -0.964859 -0.018767
-0.038639 -0.964671 -0.018568
-0.038453 -0.964599 -0.018871
0.014429 -0.964587 -0.018844
0.014687 -0.964787 -0.018797
0.031731 -0.964914 -0.018584
0.032333 -0.964568 -0.018610
0.038498 -0.964912 -0.018646
-0.057039 -0.964341 -0.018999
-0.056818 -0.964376 -0.018792
0.013907 -0.964125 -0.018721
0.014183 -0.964340 -0.018674
0.033053 -0.964246 -0.018839
0.037986 -0.964050 -0.018863
-0.061853 -0.963740 -0.018783
-0.058178 -0.963564 -0.018787
-0.057755 -0.963851 -0.018863
-0.037599 -0.963824 -0.018603
-0.037371 -0.963632 -0.018587
0.013166 -0.963507 -0.018692
0.013535 -0.963833 -0.018773
0.033781 -0.963814 -0.018841
0.034054 -0.963676 -0.018895
-0.061671 -0.963410 -0.018792
-0.037036 -0.963405 -0.018768
0.012692 -0.963100 -0.018627
0.034141 -0.963443 -0.018508
0.034823 -0.963163 -0.018777
0.035091 -0.963049 -0.018875
-0.059782 -0.962628 -0.018830
-0.059496 -0.962671 -0.018558
-0.036328 -0.962825 -0.018780
0.035339 -0.962802 -0.018663
0.035693 -0.962590 -0.018659
0.037340 -0.962812 -0.018725
-0.060252 -0.962369 -0.018874
-0.035402 -0.962107 -0.018950
0.011326 -0.962021 -0.018801
0.011657 -0.962256 -0.018659
0.036285 -0.962305 -0.018804
0.036776 -0.962272 -0.018773
-0.060874 -0.961980 -0.018636
-0.035127 -0.961885 -0.018964
-0.034911 -0.961630 -0.018673
0.011026 -0.961700 -0.018519
0.036717 -0.961964 -0.018551
-0.034571 -0.961399 -0.018858
-0.034261 -0.961162 -0.018926
0.010216 -0.961116 -0.018834
-0.034037 -0.960875 -0.018539
-0.033737 -0.960668 -0.018691
-0.013690 -0.960526 -0.018947
-0.012993 -0.960631 -0.018834
-0.012010 -0.960789 -0.018610
-0.011819 -0.960764 -0.018737
-0.011337 -0.960685 -0.018800
0.009830 -0.960772 -0.018731
0.010014 -0.960972 -0.018918
-0.033380 -0.960350 -0.018600
-0.014819 -0.960183 -0.018753
-0.014290 -0.960395 -0.018954
-0.013741 -0.960404 -0.018707
-0.013301 -0.960432 -0.018555
-0.010495 -0.960465 -0.018733
-0.009718 -0.960275 -0.018701
-0.008687 -0.960046 -0.018708
0.009273 -0.960354 -0.018886
-0.032487 -0.959718 -0.018989
-0.017675 -0.959542 -0.018756
-0.016647 -0.959773 -0.018757
-0.015753 -0.959948 -0.018699
-0.008625 -0.959986 -0.018607
-0.007595 -0.959822 -0.018755
-0.007179 -0.959701 -0.018694
-0.006548 -0.959662 -0.018917
-0.006269 -0.959530 -0.018767
-0.005877 -0.959512 -0.018918
0.008759 -0.959845 -0.018562
-0.032158 -0.959402 -0.018815
-0.019745 -0.959006 -0.018604
-0.019114 -0.959179 -0.018671
-0.018782 -0.959278 -0.018724
-0.018189 -0.959451 -0.018809
-0.017766 -0.959435 -0.018570
-0.006282 -0.959479 -0.018650
-0.005922 -0.959442 -0.018746
-0.005159 -0.959337 -0.018891
-0.004587 -0.959087 -0.018627
-0.031624 -0.958917 -0.018649
-0.022726 -0.958501 -0.018962
-0.021930 -0.958501 -0.018576
-0.021369 -0.958683 -0.018697
-0.020865 -0.958931 -0.018986
-0.020449 -0.958870 -0.018654
-0.019837 -0.958999 -0.018634
-0.004204 -0.958964 -0.018548
-0.003219 -0.958821 -0.018718
-0.002647 -0.958818 -0.018989
-0.002244 -0.958627 -0.018773
0.007279 -0.958680 -0.018766
0.007618 -0.958954 -0.018745
-0.030707 -0.958142 -0.018568
-0.024693 -0.958164 -0.018801
-0.024228 -0.958027 -0.018667
-0.023817 -0.958202 -0.018846
-0.023229 -0.958292 -0.018756
-0.022860 -0.958405 -0.018820
-0.000872 -0.958288 -0.018706
0.000829 -0.958095 -0.018776
0.006664 -0.958112 -0.018531
-0.030223 -0.957742 -0.018567
-0.028508 -0.957506 -0.018894
-0.027770 -0.957572 -0.018824
-0.027251 -0.957533 -0.018608
-0.026577 -0.957634 -0.018623
-0.026329 -0.957767 -0.018814
-0.025738 -0.957767 -0.018656
0.000444 -0.957983 -0.018687
0.000924 -0.957859 -0.018621
0.001407 -0.957896 -0.018822
0.001724 -0.957827 -0.018773
0.002380 -0.957725 -0.018752
0.002730 -0.957647 -0.018695
0.006033 -0.957610 -0.018597
-0.029635 -0.957333 -0.018658
-0.029496 -0.957254 -0.018672
-0.028089 -0.957372 -0.018522
0.003157 -0.957487 -0.018500
0.004280 -0.957462 -0.018753
0.004619 -0.957412 -0.018747
0.005231 -0.957343 -0.018779
0.005615 -0.957331 -0.018553
-0.083161 -0.995091 -0.018230
-0.082605 -0.995091 -0.018462
-0.081716 -0.995091 -0.018228
-0.081215 -0.995091 -0.018250
-0.080669 -0.995091 -0.018400
-0.080378 -0.995091 -0.018143
-0.079642 -0.995091 -0.018470
-0.079228 -0.995091 -0.018227
-0.078851 -0.995091 -0.018117
-0.078204 -0.995091 -0.018306
-0.077654 -0.995091 -0.018290
-0.077255 -0.995091 -0.018254
-0.076371 -0.995091 -0.018410
0.052279 -0.995091 -0.018210
0.052829 -0.995091 -0.018199
0.053243 -0.995091 -0.018201
0.053892 -0.995091 -0.018144
0.054489 -0.995091 -0.018091
0.054808 -0.995091 -0.018064
0.055305 -0.995091 -0.018311
0.055657 -0.995091 -0.018384
0.056231 -0.995091 -0.018393
0.056677 -0.995091 -0.018371
0.057752 -0.995091 -0.018256
0.058225 -0.995091 -0.018236
0.058648 -0.995091 -0.018184
0.059273 -0.995091 -0.018130
0.064851 -0.992741 -0.018052
-0.088872 -0.992450 -0.018213
-0.084438 -0.992239 -0.018290
0.064850 -0.992358 -0.018319
-0.084636 -0.991707 -0.018174
0.060771 -0.991503 -0.018257
0.064491 -0.991604 -0.018145
0.064657 -0.991777 -0.018449
-0.088269 -0.991294 -0.018212
-0.085176 -0.991134 -0.018399
-0.084970 -0.991292 -0.018213
0.064196 -0.991275 -0.018017
-0.087044 -0.990624 -0.018436
-0.086189 -0.990648 -0.018363
-0.085590 -0.990850 -0.018328
-0.085405 -0.990952 -0.018302
0.061789 -0.990741 -0.018180
0.062325 -0.990622 -0.018303
0.062848 -0.990611 -0.018285
0.063170 -0.990662 -0.018384
0.063730 -0.990886 -0.018309
0.048585 -0.984469 -0.018385
-0.072330 -0.983876 -0.018306
0.048250 -0.983737 -0.018237
-0.071976 -0.983149 -0.018432
0.047955 -0.983135 -0.018363
-0.071741 -0.982642 -0.018367
-0.071582 -0.982287 -0.018248
0.047556 -0.982273 -0.018259
0.047345 -0.981796 -0.018065
-0.070989 -0.981038 -0.018271
0.047099 -0.981295 -0.018176
-0.070839 -0.980740 -0.018375
0.046877 -0.980813 -0.018095
0.046390 -0.979813 -0.018267
-0.070171 -0.979322 -0.018336
0.046130 -0.979262 -0.018257
0.045932 -0.978835 -0.018204
-0.069716 -0.978346 -0.018245
0.045691 -0.978334 -0.018245
0.045540 -0.978000 -0.018161
-0.069136 -0.977142 -0.018369
0.045126 -0.977151 -0.018309
-0.069068 -0.976944 -0.018042
-0.068673 -0.976153 -0.018227
-0.068508 -0.975823 -0.018378
0.044546 -0.975916 -0.018251
-0.068213 -0.975234 -0.018250
0.044198 -0.975278 -0.018346
-0.068111 -0.974971 -0.018043
-0.067843 -0.974559 -0.018264
-0.067636 -0.974151 -0.018190
0.043626 -0.974137 -0.018104
-0.067483 -0.973840 -0.018109
0.043366 -0.973700 -0.018217
0.043249 -0.973437 -0.018088
-0.066937 -0.972959 -0.018437
-0.066619 -0.972289 -0.018204
0.042483 -0.972037 -0.018106
-0.065894 -0.971036 -0.018428
0.042113 -0.971389 -0.018193
0.041730 -0.970687 -0.018201
-0.065597 -0.970372 -0.018103
-0.065410 -0.970089 -0.018270
0.041499 -0.970226 -0.018101
-0.064913 -0.969141 -0.018173
0.024443 -0.969017 -0.018228
0.040890 -0.969184 -0.018310
0.041061 -0.969494 -0.018295
-0.064663 -0.968748 -0.018354
-0.048834 -0.968855 -0.018201
-0.047652 -0.968890 -0.018295
-0.047230 -0.968816 -0.018228
-0.046659 -0.968719 -0.018213
-0.045381 -0.968507 -0.018254
0.021375 -0.968522 -0.018489
0.022327 -0.968675 -0.018367
0.022787 -0.968747 -0.018280
0.023595 -0.968877 -0.018184
0.024100 -0.968965 -0.018236
0.024615 -0.968960 -0.018170
-0.050280 -0.968072 -0.018368
-0.049751 -0.968334 -0.018255
-0.044725 -0.968399 -0.018284
-0.044248 -0.968309 -0.018098
-0.043631 -0.968202 -0.018023
-0.043070 -0.968119 -0.018235
0.019793 -0.968241 -0.018176
0.020590 -0.968379 -0.018274
0.025740 -0.968305 -0.018203
0.026213 -0.968099 -0.018365
0.040450 -0.968396 -0.018365
-0.064148 -0.967736 -0.018180
-0.050821 -0.967697 -0.018256
-0.042512 -0.967802 -0.018352
0.018261 -0.967566 -0.018181
0.026894 -0.967627 -0.018225
0.040137 -0.967802 -0.018314
-0.063811 -0.967095 -0.018119
-0.051960 -0.967123 -0.018478
-0.051314 -0.967323 -0.018085
-0.041887 -0.967224 -0.018110
0.017853 -0.967253 -0.018264
0.027318 -0.967380 -0.018236
0.027545 -0.967273 -0.018296
0.039909 -0.967389 -0.018332
-0.041189 -0.966685 -0.018246
-0.040916 -0.966503 -0.018406
0.017248 -0.966760 -0.018286
0.028844 -0.966541 -0.018384
0.039472 -0.966571 -0.018289
-0.063196 -0.966031 -0.018299
-0.053738 -0.966039 -0.018427
-0.052864 -0.966428 -0.018144
-0.040747 -0.966299 -0.018164
-0.040386 -0.966050 -0.018341
0.016651 -0.966226 -0.018123
0.029436 -0.966096 -0.018188
0.029504 -0.966145 -0.018378
0.039313 -0.966262 -0.018250
-0.063021 -0.965668 -0.018185
-0.054086 -0.965783 -0.018321
-0.040070 -0.965739 -0.018153
-0.039963 -0.965660 -0.018187
0.016189 -0.965879 -0.018251
0.029825 -0.965912 -0.018291
0.030242 -0.965680 -0.018323
-0.055111 -0.965140 -0.018252
-0.054781 -0.965381 -0.018348
-0.039348 -0.965173 -0.018261
0.030847 -0.965268 -0.018215
0.031102 -0.965180 -0.018351
0.038838 -0.965356 -0.018154
-0.062567 -0.964865 -0.018272
-0.056125 -0.964551 -0.018283
-0.055711 -0.964794 -0.018277
0.014570 -0.964611 -0.018496
0.015093 -0.964941 -0.018117
0.031700 -0.964712 -0.018111
0.038422 -0.964572 -0.018104
-0.056647 -0.964272 -0.018352
-0.056432 -0.964369 -0.018288
-0.038249 -0.964274 -0.018281
0.013987 -0.964102 -0.018385
0.014167 -0.964249 -0.018380
0.032740 -0.964063 -0.018047
0.038218 -0.964202 -0.018118
-0.061896 -0.963655 -0.018332
-0.057285 -0.963856 -0.018276
-0.037762 -0.963894 -0.018357
-0.037404 -0.963543 -0.018149
0.033160 -0.963961 -0.018366
0.033721 -0.963563 -0.018228
0.038066 -0.963997 -0.018321
-0.058757 -0.963071 -0.018473
-0.058250 -0.963255 -0.018219
-0.057954 -0.963341 -0.018027
-0.037341 -0.963470 -0.018068
-0.036949 -0.963199 -0.018263
0.013141 -0.963373 -0.018264
0.034205 -0.963272 -0.018224
0.037689 -0.963341 -0.018420
-0.061388 -0.962628 -0.018083
